76.3 -39.1 198.2 21
75.6 -40.5 202.5 21
79.9 -42.9 197.9 21
77.7 -51.7 201 21
74.4 -44.7 191.2 21
71.2 -47.4 196.9 21
74.2 -47.8 197.1 21
70.1 -48 196.1 21
73.9 -49.6 201.2 21
76.7 -36.6 197.8 21
76.6 -43.6 199.6 21
76.6 -49.7 194 21
75.9 -39.4 198.9 21
79.8 -43.5 203.6 21
74.3 -47.5 198.3 21
78.7 -42.4 184.4 21
72.9 -48.8 201.8 21
76.2 -46.1 192 21
73.3 -47.8 201.8 21
72.7 -49.3 195.3 21
72.4 -42.9 194.1 21
76.4 -51.3 191.4 21
75.8 -44 197.7 21
72 -47.6 196.1 21
73 -44.1 196.8 21
77.1 -47.1 195.7 21
77 -51.5 197 21
78.4 -38.4 198.7 21
75 -44.6 190.9 21
78.1 -42 168.4 21
78.6 -42.2 186.2 21
76.5 -51.3 197.1 21
80.7 -38 194.7 21
73.1 -50.8 192.5 21
72.6 -43.7 195.5 21
74 -45.4 191.7 21
75.1 -42.1 200.9 21
77.8 -46.2 191.2 21
75.2 -44.5 193 21
74.4 -45.9 195.6 21
81.1 -46.1 201.7 21
73.5 -48.1 193.2 21
78.5 -39.9 193.2 21
79.1 -43.3 187 21
71.4 -45.9 200.2 21
71.2 -45.7 200.8 21
75.5 -48.4 191.5 21
77.9 -38 199.4 21
70.7 -44.6 194.6 21
75.7 -45.8 198 21
77.5 -37.8 196.1 21
79 -38.4 201.4 21
77.7 -49.4 191.7 21
76.1 -40.4 195.3 21
75.6 -44 194.5 21
72.4 -46.2 201.1 21
69.7 -46.1 195.7 21
76.7 -39.4 198.2 21
76.4 -45.5 199.2 21
75.9 -40.7 195 21
78.2 -43.4 187.1 21
82.1 -45.1 197 21
81.9 -46.3 195.9 21
71 -48.8 198.2 21
77.5 -52 201.3 21
83.2 -46.5 198.5 21
79.9 -44.7 202.6 21
75.2 -45.8 194.1 21
76.5 -40.6 199.4 21
74.7 -47.6 202.1 21
77.1 -39.5 199.7 21
75.2 -43 202.2 21
73.9 -49.3 198.8 21
81.1 -45.5 196 21
80.1 -42.4 198.2 21
79.9 -46.7 196.7 21
73.7 -48.1 193.1 21
80.4 -42.7 198.3 21
76.8 -48.9 196.6 21
73.5 -50.8 192.2 21
71.3 -49.9 194.7 21
78.6 -42.7 189 21
72.8 -49.3 198.4 21
73.3 -44.3 192.5 21
72.6 -51.2 199 21
77.2 -51.6 198.3 21
79.8 -42.1 183.5 21
77.6 -42 197 21
76.9 -46.4 200.2 21
76.8 -53.4 200.2 21
82.1 -47.2 188 21
78.4 -38.6 195.9 21
72.9 -47 200.8 21
73.3 -44 196.9 21
82.8 -45.2 199.1 21
76.2 -49 196 21
75.9 -49.9 198.3 21
74.7 -40.4 195.3 21
77.4 -45.4 197.7 21
75 -45.1 191 21
76.4 -42.7 199 21
72.2 -46.1 199.8 21
73.7 -48.4 197.5 21
77.3 -51.6 201.5 21
71.9 -45.3 198.3 21
79.3 -45 199.5 21
77.7 -44.3 187.1 21
73.8 -45.7 200.8 21
71 -49.5 198.3 21
78.4 -40.1 198.2 21
74.4 -46.3 199.5 21
81.6 -43.4 200.8 21
73.5 -42 192.8 21
76.5 -44.8 189.7 21
73.2 -50.6 198.3 21
80.3 -36.3 193.8 21
82.3 -43.4 199.4 21
77.9 -42.1 168.5 21
72.1 -44.4 196.5 21
78 -42.1 168.5 21
77.4 -39.9 193.8 21
76.5 -48.9 202.1 21
76.8 -48.6 198.1 21
76.2 -47.8 200.7 21
76 -43.4 198 21
78.1 -43.3 194.4 21
76 -40.4 201 21
74.5 -51.6 194.2 21
79.2 -44.6 186.8 21
76 -42.2 203.5 21
80.6 -47.5 187.7 21
78 -52.3 201.3 21
76.7 -42.3 199.1 21
78.5 -42.1 187.5 21
76.5 -49.5 201 21
78 -42 168.5 21
78.6 -51 199.9 21
80.4 -41.6 202.7 21
74.9 -44.9 200.6 21
77.8 -53.3 200.8 21
77.8 -50.1 198.5 21
77.3 -45.4 189.2 21
75.3 -49.2 188.4 21
73.6 -48.8 196.6 21
79.8 -43.6 193.2 21
76.8 -43.8 198.9 21
77.1 -51.7 200.9 21
79.3 -45.3 197.5 21
73.6 -50.1 199.5 21
75.4 -49.9 191.3 21
73.4 -49.6 198.1 21
75.5 -50.1 199.1 21
79.6 -44.8 201.4 21
76.1 -49.8 202.4 21
80.2 -46.7 198.5 21
78.2 -42.7 203.1 21
77.3 -48.6 195.7 21
77.1 -50.9 199.9 21
76.8 -52.7 200.6 21
75.8 -46.6 194.8 21
80.4 -42.1 198.7 21
78.2 -37.7 198.8 21
77.9 -42 192.5 21
76.8 -48.4 191.5 21
74.1 -47.2 199.1 21
76.7 -49.7 197 21
82.6 -44.1 195.9 21
77.3 -44.9 195.1 21
74.8 -50.4 191.2 21
79.5 -46.7 197 21
77.4 -42.1 199.8 21
78.2 -42.2 185.7 21
75.5 -47.6 197.9 21
76.7 -48 197.3 21
81.1 -44.6 200.3 21
73.3 -47.6 199 21
79.4 -42.2 182 21
76.3 -49 192.2 21
78.8 -43.3 194.9 21
76.8 -53.2 200.3 21
74.8 -48.7 200.2 21
78.9 -41.9 193.9 21
73.4 -47 189.5 21
75.5 -48.7 202.2 21
77.6 -42.2 200.6 21
73 -50.8 191 21
82.5 -44.9 201.5 21
77.2 -51.4 191.7 21
76 -46.9 202.1 21
71.4 -48.7 198.6 21
73.8 -41.7 193.3 21
81.8 -48 188 21
81.2 -39.7 194.8 21
78.7 -39.9 196.8 21
69.5 -45.2 198.1 21
75.6 -49 202.7 21
77.1 -45 190.9 21
77.6 -44.9 189.7 21
76.7 -49.4 190 21
71.9 -49.4 200.8 21
74.7 -46.2 189.8 21
76.3 -42.1 203.1 21
70.5 -45.2 192.3 21
78.1 -42 168.5 21
73.6 -46.1 202.2 21
80.6 -45.4 197.9 21
77.9 -45.7 199.7 21
70.1 -44.1 196.5 21
73.7 -48.3 192.9 21
77.9 -45 203.5 21
70.6 -48.3 189.7 21
77.3 -39.5 195.7 21
80.6 -46.1 199.6 21
79.7 -42.3 195.9 21
78.7 -47.5 196.9 21
72.7 -46.6 197.7 21
73.5 -48.7 195.7 21
77.1 -49.8 200 21
75.8 -47.4 198.5 21
78.2 -41.9 168.3 21
71.8 -46.7 200.2 21
78.3 -41.9 168.3 21
76.8 -50.4 192 21
76.8 -45.4 201.2 21
74.2 -41 194.2 21
77.4 -40 201.2 21
73.2 -46.9 189.7 21
78.2 -42 168.4 21
78.3 -46.7 199.5 21
75.2 -47 190.8 21
79.4 -39.5 200.3 21
82.4 -40.6 202.7 21
73.8 -50.9 200.5 21
78.8 -40.5 200.4 21
73.9 -49.9 191.8 21
76 -49.8 191.8 21
77.3 -45 197.4 21
74.9 -44.1 196.6 21
75.3 -37.8 197.7 21
78.4 -42 183.3 21
77.1 -50.7 198.5 21
74.2 -45.2 202 21
72.8 -47 198.2 21
79.1 -47 202.8 21
78.3 -41.9 168.4 21
78.2 -41.9 168.4 21
77.3 -44 195.2 21
74.7 -48.6 202.7 21
81.8 -46.7 195.3 21
78.9 -48.9 198.7 21
78.2 -42 168.5 21
80.2 -42.2 200.5 21
78.3 -39.6 194.5 21
69.7 -48 196.6 21
82.9 -45.6 201.1 21
75.7 -45 197.2 21
78.3 -41.9 168.5 21
78.2 -41.9 168.5 21
72.1 -48.9 200.9 21
72.1 -46.6 200.7 21
80.5 -45.3 194.6 21
83 -41.2 200.5 21
72.8 -43.1 197.6 21
76.3 -39.4 201.3 21
80.1 -43.6 197.7 21
77.2 -51.4 192 21
79.3 -47.6 196.9 21
81.4 -43 202 21
80 -44.6 197.6 21
78.8 -42.3 168.1 21
78.9 -42.3 168.1 21
79.2 -42.2 202.8 21
71.8 -46.2 198.9 21
76.7 -46.7 199.4 21
77.3 -51.3 199.4 21
78.4 -42.6 184.6 21
73 -49.9 198.4 21
78.9 -42.4 168.1 21
79.7 -45.3 187.2 21
74.4 -51.3 201.2 21
75.8 -50.6 189.7 21
78.8 -42.3 168 21
77.4 -50.8 199.6 21
77.1 -51.3 191.9 21
71.1 -49.8 194.2 21
71.3 -45.2 197.4 21
78.3 -46.8 197 21
81.6 -43.8 200.3 21
78.8 -42.2 168.1 21
73.6 -48.6 197.6 21
79.9 -38.3 199.2 21
83.6 -43.5 201.9 21
70.9 -49.1 198 21
82.3 -44.1 196.1 21
79.7 -38.2 196.8 21
75.4 -42.3 192.5 21
75.8 -51.6 196.9 21
77.4 -49 196.4 21
71 -48.2 195.2 21
72.9 -52.3 196.4 21
78.9 -42.3 168.2 21
71.9 -49.2 197 21
78.2 -39.1 194.1 21
69.5 -48 195.8 21
84.1 -43.9 198 21
76.3 -45.6 195 21
73.5 -46.4 190 21
78.1 -37.3 199.6 21
79.8 -41.5 196.5 21
80 -44.4 198.2 21
78.9 -43.7 199.5 21
74.8 -47.5 193.4 21
79 -44.5 202.5 21
81.4 -42.2 200.4 21
74.6 -46 195.3 21
78.5 -41.1 191 21
78.9 -42.2 168.2 21
77 -51.1 195.4 21
80.1 -43.6 193.3 21
81 -43.2 203.2 21
78.8 -42.2 168.2 21
76.4 -49.1 199.6 21
73.3 -43.3 191.4 21
78.8 -45.8 200.8 21
76.6 -47.3 197.5 21
74.5 -45.9 201.4 21
70.9 -45.8 194.7 21
76.4 -40.6 194.4 21
78.5 -42.8 189.6 21
80.6 -43.8 198.7 21
75.4 -44.2 192.5 21
78.7 -41.9 168.1 21
80.9 -41.1 203.1 21
78.6 -41.9 168.1 21
82.3 -44.5 196.1 21
77.3 -41.2 198.9 21
79.5 -47.3 187.2 21
73.3 -46.4 202 21
78.5 -41.9 188 21
72.8 -50.1 201.6 21
77.1 -48.7 200.2 21
78.7 -41.9 168.2 21
73.7 -43.1 193.5 21
80.7 -45.1 202.9 21
81.5 -40.2 202 21
76.1 -52.4 197.3 21
78.6 -41.9 168.2 21
76.5 -42.6 192.3 21
78.1 -42.5 183.6 21
73.3 -43.1 191.5 21
77.6 -38 196.3 21
78.8 -42.1 168.1 21
72 -47.7 196.2 21
71.4 -48.5 189.5 21
69.7 -44.6 198.9 21
74.4 -43.7 191.6 21
70.7 -46.1 200.8 21
77.4 -48 194.4 21
78 -44.3 193.7 21
73 -50.8 191.2 21
70 -44.3 194.7 21
76.9 -45.4 190.6 21
70.2 -44.3 198 21
78.7 -43.8 187.1 21
77.4 -46.6 197.1 21
76.8 -45.6 201.1 21
78.6 -42.4 198 21
75.5 -42.7 201.7 21
76.9 -36.2 196.6 21
76.4 -49.8 191.9 21
70.6 -46.3 201.1 21
80.1 -42.1 197.9 21
75 -51.8 194.3 21
80.8 -41.8 201.5 21
77.2 -45.6 193.2 21
73.1 -51.4 196.6 21
77.6 -45.4 190.9 21
75.2 -49.7 191.2 21
75.3 -50.6 191.7 21
72.7 -51.7 196.6 21
77 -48.8 190.3 21
75.2 -45.8 190.8 21
81.4 -42.7 200.5 21
79.2 -48.8 198.7 21
77.4 -46.9 194.9 21
73.7 -41.5 193.4 21
76.7 -41.5 199.2 21
78.4 -42.1 185.7 21
74.2 -48.6 197.8 21
72.1 -50 199.8 21
76.4 -46.8 197.2 21
72.1 -48 202.4 21
78 -36.2 199.4 21
81 -45.7 201.6 21
78.9 -43.2 190.4 21
76.7 -37.3 194.7 21
73.6 -43.6 195.8 21
77.4 -46.1 192.2 21
78.1 -43.6 203.1 21
76.4 -46.2 192.1 21
76.8 -51.7 200.8 21
72.8 -51.9 196.4 21
78.8 -42 168.1 21
78 -45.2 201.6 21
71.3 -47.2 198.5 21
78.7 -42.8 190 21
80.3 -41.9 200 21
79.6 -45.7 200.4 21
79.7 -37.1 199.9 21
77.4 -48.1 194.4 21
80.1 -46.9 198.5 21
77.3 -51.7 201.4 21
77.5 -51.1 200.1 21
79.7 -42.7 186.8 21
75.1 -46.6 193.3 21
74.4 -51.9 194.6 21
73.2 -47.8 199.5 21
71.2 -49.4 194.6 21
77.9 -36.4 199.4 21
78.5 -42.6 187.1 21
77.8 -44.9 189.6 21
77.1 -42.4 199.3 21
71.5 -44.6 195.3 21
78.4 -42.8 189.9 21
77 -37.6 196.3 21
82.1 -44.4 196.1 21
75.8 -48.7 202.3 21
77.1 -38.5 198.4 21
77.1 -45.7 190.3 21
75 -46.8 198.1 21
78.7 -42 168.1 21
72.8 -48.4 198.1 21
70.6 -47.8 199.5 21
74 -50.3 195.6 21
73.2 -51.3 191.1 21
70.5 -47.3 196.3 21
81.9 -41.5 202.3 21
77.1 -44.6 201.3 21
79.6 -44.5 187 21
74 -44.2 192.4 21
77.6 -41.8 200 21
76.8 -53.3 200 21
80.6 -45.1 200.2 21
71.1 -49.5 197.7 21
71.9 -50.6 199.5 21
75.8 -47.2 197.8 21
78.8 -48.6 199 21
74.5 -49.5 196 21
72.2 -50.8 198.1 21
71.4 -49.9 194.6 21
75.2 -37.2 197.9 21
75.2 -50.7 197 21
71.4 -43.2 198.7 21
77.2 -41.7 198.6 21
78.3 -47.4 198.3 21
80.4 -41.9 198.6 21
75.6 -46.7 195.1 21
73.8 -43.7 195 21
79.3 -37.5 199.7 21
76.7 -51 197.2 21
82.7 -43.9 199 21
77.6 -43.4 200.1 21
80.6 -45.8 200.8 21
76 -43.1 196.3 21
75.6 -39.4 194.5 21
76.4 -43.9 200.5 21
76.9 -39.1 196.7 21
77.9 -42.6 203.4 21
75.5 -49.5 202.6 21
78.3 -42.6 190.8 21
79.1 -43 201.6 21
71.5 -45.8 200.6 21
76.7 -44.9 203.3 21
75.7 -51.6 189.9 21
73.9 -46.2 202.3 21
81.5 -41 202.6 21
75.9 -45.1 194.8 21
76.7 -52.7 200.7 21
73.7 -45.1 193.8 21
71.4 -47.1 202 21
77.4 -45.5 197.9 21
80.8 -45.7 203 21
72.4 -47.4 189.5 21
70.7 -47.8 199.4 21
81.1 -42.7 202.8 21
72.7 -45.9 196.4 21
79.8 -42 198.3 21
75.9 -50.4 194.5 21
70.9 -45.3 201.5 21
73.9 -50.3 194.2 21
72.5 -48.1 200.9 21
77 -45 203 21
77.7 -52.4 190.5 21
74 -46.2 202.5 21
77.2 -51.6 199.7 21
76.2 -47.7 197.1 21
78.8 -42 168.2 21
72 -49.1 196.9 21
78.8 -42.1 168.2 21
79.6 -42.1 202.7 21
82.3 -44.6 201.8 21
74.8 -50 201 21
71.7 -49 199.1 21
79.4 -43.4 197.2 21
75.4 -45.8 193.2 21
72.9 -45 195.3 21
77.3 -44.7 196.8 21
71.8 -46.4 199.8 21
73.6 -43 191.7 21
76.8 -49.2 198.2 21
80.6 -45 187.2 21
79.8 -40.8 194.9 21
82.2 -45 198.7 21
78.6 -45.8 202.5 21
75.7 -47 192.1 21
77.7 -43.6 184.3 21
81.2 -41.4 200.9 21
78.8 -43.9 187.1 21
72.9 -49.3 192.5 21
73 -43.1 193.5 21
74.5 -52.4 189.8 21
71.4 -45.6 195.4 21
72.7 -46.8 198.8 21
77.9 -43.4 194.7 21
75.6 -47.5 193.6 21
72.1 -46.9 189.4 21
78.8 -42.2 168.3 21
76.2 -49.1 198.5 21
83.4 -43.3 201.3 21
79.9 -40.5 194.9 21
77.1 -40.7 199.7 21
75.9 -52.6 200.6 21
78.9 -46 202.7 21
77.7 -43.3 202.5 21
77.8 -44.1 195.6 21
78.5 -39 198.2 21
75.5 -42.9 201.9 21
81.9 -41.4 200.8 21
78.6 -43.3 190.4 21
79.5 -40.4 197.3 21
78.7 -43 192.8 21
74.2 -45.7 196.5 21
73.8 -42.3 192.7 21
75.6 -46.1 191.8 21
77.1 -45.6 201.5 21
78.9 -43.6 192.9 21
82.6 -43.4 202.9 21
75.9 -46.7 195 21
71.8 -50.9 192.4 21
75 -49 187.8 21
70 -47.8 200.5 21
80.5 -48.1 187.7 21
80.3 -46.5 187.4 21
77.5 -38.4 199.6 21
78.7 -42 168.2 21
75.5 -45.7 193 21
71.9 -50.1 195.9 21
79.3 -40.1 196.4 21
70.8 -48.8 198.1 21
78.3 -42.6 186.4 21
74.2 -49.4 199.9 21
78.6 -39.3 196.4 21
71.7 -42.4 198.1 21
77.2 -47.1 193.5 21
77.1 -43.9 197.5 21
73.5 -45 202.3 21
77.5 -49.6 191.7 21
69.3 -45.7 192.9 21
74.1 -50 195.6 21
76.7 -47.6 195.2 21
71.3 -43.9 197.4 21
78.6 -40 192.9 21
78.4 -42.3 194.5 21
78.6 -38.7 199.9 21
81.1 -44.5 200.4 21
77.3 -52.6 201 21
77.6 -51.2 198.9 21
80.7 -44.3 195.3 21
78.8 -42.8 192 21
77.6 -37.1 199.5 21
76.6 -44.4 197.8 21
73.9 -52.5 189.6 21
75.5 -48.9 202.1 21
79.4 -39.2 200.7 21
74.5 -49.5 201.7 21
79 -43.3 200.7 21
80.7 -40.9 202 21
76.7 -36.7 195.5 21
74.5 -50.8 200.7 21
81.4 -44.3 196.6 21
71.2 -45.4 194.6 21
72.7 -41.4 191 21
77.8 -38.6 198.1 21
77.6 -36.4 195.8 21
73.7 -43.6 197.1 21
79.4 -45.8 200.5 21
76.4 -37.8 195.6 21
74.5 -44.1 193.2 21
80 -41.8 183.7 21
76.4 -44.5 189.4 21
79.2 -50.5 199.7 21
82.5 -41.9 200.8 21
76.1 -47.5 196.1 21
78.8 -44.1 187 21
76.4 -48.5 196.2 21
78.6 -42.7 188.9 21
76.8 -51.5 196.6 21
78.8 -42 168.3 21
79.4 -42 201.5 21
73 -47.9 201.2 21
70.9 -50.2 194.2 21
80.1 -46.7 200.3 21
72.9 -50.7 200.9 21
81.1 -46.3 201.5 21
75 -49.6 189.1 21
73.9 -42.3 192.7 21
78.9 -45.6 203.3 21
74.1 -41.1 195.9 21
81.3 -47.2 187.8 21
78 -41 200.7 21
81 -36 194.7 21
73.5 -45 202.7 21
74.6 -49.6 197.3 21
74.3 -47.8 197.4 21
71.6 -49.5 198.3 21
70.9 -46.2 192.7 21
77.2 -43.3 202.4 21
80.8 -45 197.9 21
77.9 -43.9 183.9 21
78.1 -41.1 195.2 21
78 -37.7 200.2 21
70.6 -48.1 200.3 21
78.1 -39.7 200.1 21
72.8 -52.1 196.5 21
78.4 -43.4 202.7 21
71.1 -46.5 200.2 21
75.1 -45.7 190.9 21
70 -45.1 195 21
78.1 -48.6 196.5 21
76 -41.5 198.6 21
77.5 -48.8 195.8 21
82.4 -44.2 200.4 21
74.6 -50.5 191 21
69.9 -46.6 196.4 21
81.7 -42.4 199 21
77.8 -44.6 189.3 21
78.5 -38.4 198.9 21
71.9 -42.7 191.1 21
76.7 -49.6 197.8 21
74.5 -49.1 193.5 21
75 -48.8 190.9 21
77.5 -45.5 197 21
69.8 -45.5 197.9 21
82.4 -43.3 202.7 21
70.4 -48.4 189.7 21
76.1 -46.9 194.9 21
78.9 -37.1 199.7 21
75.8 -40.1 201 21
72.1 -46.1 192.4 21
77.9 -51.2 191.4 21
78.8 -45.8 194.2 21
77.3 -51.9 198 21
81.6 -41.8 199.1 21
72.3 -42.9 194.7 21
78.1 -42.3 186.8 21
80.8 -35.2 194.7 21
74.3 -45.7 196.3 21
78.9 -42.3 168.3 21
76 -48.4 200.9 21
70.2 -44.7 194.6 21
77.3 -45.2 194.6 21
77 -40.6 202.7 21
73.8 -41.5 193.4 21
78.3 -37.4 195.4 21
71.7 -48.2 196.7 21
69.3 -45.9 193 21
72.1 -45.5 197.7 21
80.8 -43.8 200.9 21
73.1 -46.9 198.2 21
76.7 -37.2 196.1 21
73.2 -44 193.5 21
80.8 -41.1 200.6 21
77.9 -43.4 199 21
76.8 -43.5 196.7 21
72.2 -47 197.2 21
76.9 -49.3 200.7 21
74.8 -49 198.9 21
71.1 -45.2 197.4 21
75.7 -39.3 198.6 21
78.9 -42.2 168.3 21
76.3 -50.3 191.8 21
77.2 -50.6 198.4 21
74 -50.2 201.3 21
78.8 -42.4 188.8 21
76.8 -46.9 194.9 21
75.4 -45.7 199.7 21
72.8 -51.1 192.5 21
76.6 -52.1 200.8 21
73.8 -47 189.9 21
69.7 -47.8 200.6 21
78.5 -42 184.2 21
77.5 -48.4 197.9 21
80.9 -37.4 195 21
75.7 -48.7 202.6 21
79.6 -40.8 198.1 21
75.2 -46 194 21
76.2 -45.8 192.2 21
77.6 -44.5 187.9 21
81.4 -44.4 199 21
76.9 -41.2 199.8 21
76.4 -48.4 202.6 21
80.6 -45.3 197 21
78.2 -40.9 193.2 21
76.4 -49.1 189.5 21
78.5 -45.7 201.6 21
80.4 -41.9 198.9 21
74.7 -51.9 197.2 21
76.7 -41.5 199.1 21
79.3 -40.8 196 21
75.5 -46.6 193.1 21
77.2 -47.9 194.4 21
79.3 -39.4 200.7 21
76.4 -48.9 190.1 21
78.9 -42.3 168.4 21
76.1 -47.9 191.7 21
78.2 -37.9 196.3 21
77 -48.2 191.4 21
74.7 -46.9 202.9 21
75.8 -50 193.5 21
73.3 -49.7 192.3 21
71.1 -47.6 200.9 21
81.9 -47.2 195.6 21
77.3 -50.2 198.1 21
77.6 -43.9 195.7 21
75.1 -46.1 194 21
75.9 -46.1 192 21
70.8 -45.4 201.5 21
77.6 -45.9 197.4 21
76.7 -40.4 201.9 21
79 -41.8 195.2 21
78.9 -42.3 168.5 21
76.2 -46.8 197.6 21
77.1 -44.2 196.8 21
82.4 -42.8 201 21
79.7 -40.1 200 21
73.8 -51.2 199.9 21
71.5 -47.7 196.1 21
77.8 -42.9 203 21
74.2 -50.6 198 21
78.9 -42.2 168.4 21
78.9 -44.7 192.3 21
82.9 -43.6 198.9 21
78.8 -46.2 201.2 21
80.5 -44.3 198 21
78.9 -42.2 168.5 21
78.7 -42 193.5 21
77.3 -50.3 192.2 21
76 -47.8 196.5 21
82.2 -45.4 198.9 21
77.1 -51.5 201.6 21
80.8 -42.1 196.6 21
81.2 -43.6 198.2 21
79.6 -40 197.9 21
71.8 -48.3 201.2 21
78.6 -41.9 168.3 21
78.7 -41.9 168.3 21
79.7 -43.3 195.3 21
70.7 -47.3 199.9 21
75.1 -45.1 191.8 21
78.1 -42.5 184.1 21
78.7 -43.2 194.7 21
78.6 -42.6 187.2 21
76.9 -48.8 194.7 21
70.6 -47.5 200.3 21
76.4 -41.1 199 21
78.7 -41.9 168.4 21
78.6 -41.9 168.4 21
77.3 -52 200.3 21
75 -47.3 201.2 21
78.8 -42 168.4 21
78.8 -42.1 168.3 21
76.4 -42.4 199 21
80.2 -43.1 203 21
81.4 -43.4 200.9 21
77.9 -52.1 201.2 21
73 -46.5 196.9 21
74.1 -47.1 202.5 21
78.3 -42.6 189.2 21
71 -49.7 194.3 21
76.1 -50.5 191.8 21
70.9 -46 197.6 21
74.1 -50.1 194.2 21
71.9 -44.3 191.7 21
72.6 -46.3 202.1 21
77.1 -36.3 197.7 21
82.7 -41.1 200.9 21
79.7 -41.5 196.2 21
76.2 -37.4 197.7 21
79.9 -45.6 187.4 21
76 -44.4 192.7 21
71.5 -47.7 189.6 21
78.8 -42.2 168.4 21
72.4 -46.1 202.1 21
71.5 -50.5 199.2 21
78.8 -42.1 168.4 21
71.7 -50.4 200.3 21
75.1 -46.6 201.2 21
75.5 -46.3 190.3 21
77.5 -47.2 195.1 21
76.9 -47.4 196.2 21
78.5 -38.9 200.2 21
82.5 -45.8 201 21
76.8 -51.3 200.4 21
79.1 -50.4 199.8 21
71.4 -44.1 195.8 21
81.9 -45.4 197.2 21
80.5 -43.4 202.6 21
74 -44.4 193.2 21
76.9 -42.4 199 21
78.8 -45.2 195.7 21
70.6 -49.9 194 21
76.2 -45.6 189.9 21
81.8 -44.2 202.8 21
70.5 -44 195.5 21
72 -42.3 191.2 21
75.8 -45.8 197.6 21
78.1 -38.7 195 21
75.2 -48.5 201.6 21
70.7 -47.4 200.4 21
81 -42.7 202.5 21
70.4 -46.7 199.6 21
79 -41 195.9 21
77.2 -37.5 195.3 21
72.4 -50.2 198.5 21
76.1 -49.9 201.6 21
74 -51 195 21
78.7 -42 168.3 21
74.7 -48.4 201.5 21
78.5 -43.4 195.6 21
75.4 -43 202.1 21
69.5 -45.5 192.9 21
81.5 -47.4 195.6 21
79.4 -39.2 197 21
74.8 -51.3 198.3 21
76.4 -40.8 195.2 21
73.5 -51.2 191.3 21
72.9 -46.4 197.5 21
78.7 -50.1 199.8 21
72.9 -50 199.2 21
75.7 -52.8 200.5 21
77.8 -43.8 186 21
76.6 -36.7 196.5 21
77.8 -45.3 191 21
78.8 -42.5 191.4 21
78.5 -42.6 193.6 21
75.9 -45.8 192.2 21
78 -39.1 194.2 21
75.8 -47.6 195.4 21
73.5 -45.5 194.6 21
79.8 -42.2 182.8 21
79.1 -47.1 197 21
73.1 -49.7 192.6 21
78.9 -46.4 203.1 21
77.2 -48 201.5 21
76.7 -35.6 195.4 21
81.1 -43.2 201.8 21
75.4 -50.8 189.9 21
75.5 -48.5 197.9 21
76.4 -44.7 189.9 21
73 -42.8 193.5 21
72.7 -48 196.6 21
75.6 -46.9 197.9 21
76.3 -49.3 192.1 21
73.6 -43.3 193.5 21
76.2 -50.6 194.6 21
75.8 -46.2 197.5 21
77.4 -43.8 185.2 21
78.2 -42.2 184.7 21
80 -44.9 197.4 21
71.2 -47.3 198.5 21
77.5 -45.9 190.6 21
80.7 -42.4 198.6 21
76 -50 201.7 21
77 -41.6 202.5 21
77.1 -40 198.9 21
74.4 -46.6 199 21
78 -42.1 183.7 21
78.1 -42.5 200.7 21
77.1 -40.6 199.7 21
74.5 -50.8 198 21
83.6 -44.1 199.2 21
72.9 -44.8 196 21
77.1 -40.1 200.4 21
76.5 -40.7 194.4 21
75.8 -50.4 200 21
77.7 -44.2 188.1 21
78.7 -42 168.4 21
70.6 -47.4 190 21
73.6 -48 193.2 21
79.6 -42.6 201.6 21
77.3 -45.3 189.3 21
79 -43.8 198 21
72.4 -46.3 194.6 21
75.1 -42.2 192.4 21
79.6 -46.1 196.8 21
76.1 -41.9 200.8 21
76.2 -40.5 202.1 21
81.9 -40.4 203 21
80.4 -42.5 198.3 21
76.5 -45.2 202.9 21
71.8 -47.3 194.8 21
76.7 -38.6 198.7 21
77.9 -43.3 199.7 21
75.4 -42.9 201.2 21
70.5 -46 192.9 21
76.5 -36.5 197.9 21
76.1 -43.9 196 21
74.1 -41.6 193.4 21
76.4 -37.5 194.7 21
80.1 -41.1 195.2 21
78.3 -42.9 191.8 21
74.7 -48.7 201.8 21
75.5 -48.3 189.4 21
71.3 -47.3 198.5 21
72 -48.3 197.8 21
73 -47.9 189 21
75 -48.3 199.7 21
74.1 -49.5 199.7 21
76 -47.5 191.7 21
78.7 -42.3 187.7 21
78.5 -48.9 198.8 21
82.5 -44.5 195.9 21
69.4 -44.6 198.3 21
76.7 -48.8 190.1 21
77 -52.8 199.9 21
82.2 -44 201.9 21
72.7 -48.6 192 21
83.4 -43.3 200.8 21
83 -46.1 195.9 21
78 -36.7 199.6 21
73.6 -44.2 192.2 21
74.3 -49.2 199.8 21
73.6 -51.9 191.5 21
74.6 -49.4 193.6 21
69.9 -44.8 198.6 21
76.4 -40.5 200.6 21
79.4 -43.6 199.7 21
78.2 -42.4 189 21
75.6 -49.1 200.4 21
82.2 -43.6 202.2 21
77.3 -45.3 194 21
71.4 -42.5 198.1 21
73.3 -47.7 199.2 21
72.5 -43.3 197.3 21
79.7 -48.3 198.4 21
73.5 -51 200.2 21
76.6 -45.8 191 21
75.6 -46.4 193 21
71.4 -48 189.3 21
73.7 -50.5 191.4 21
77.8 -38.7 195.3 21
78.3 -43.1 193.6 21
75.7 -41.6 202.9 21
73 -51.5 198.3 21
78.8 -42.2 168.5 21
80.2 -46.4 202.8 21
78.8 -42.1 168.5 21
78 -41 201.8 21
77.4 -43.5 186.6 21
78.7 -38.9 200.9 21
70.9 -49 198.3 21
73.3 -44.1 195.6 21
72.2 -51.7 196.5 21
78.6 -42.1 185.2 21
78.1 -42.4 186.4 21
77.1 -43.9 194.9 21
78.6 -48.6 195.4 21
76 -38.1 197.5 21
80.7 -46.7 198.3 21
72.1 -48 200 21
76.9 -45.4 189.7 21
75.3 -49.4 189.3 21
74.2 -50.3 192.5 21
75.7 -37.8 197.7 21
79.2 -43 197.1 21
79.6 -45 196.2 21
80.9 -44.6 196.2 21
78.4 -38.2 195.7 21
78.2 -42.5 184.7 21
72.7 -49.5 196.6 21
77.2 -37.9 196.1 21
73.8 -46.3 189.9 21
78.9 -41.3 187.4 21
80.9 -48.4 197.1 21
70.8 -43.2 191.6 21
77.2 -51.6 192 21
78 -48.7 198.3 21
74.8 -41 194.8 21
77.5 -47.6 195.7 21
83.1 -44.9 198 21
79.4 -47 196.7 21
75.8 -51.5 191.4 21
75 -45.1 192.1 21
80.5 -46.4 194.9 21
77.3 -39.8 200.8 21
78.8 -43.2 194.1 21
78.3 -42.6 188.2 21
75.3 -46.6 196.4 21
77.6 -38 199.6 21
81.5 -42.8 202.3 21
76.5 -38 197.2 21
81 -42.3 199.7 21
77.6 -50 194.3 21
82.5 -47.9 188.1 21
79.8 -43.9 203.5 21
72.1 -50.9 192.2 21
77.5 -49.5 200 21
76.7 -41.1 199.2 21
77.3 -47.3 193.6 21
79.8 -41.3 196.5 21
78.5 -40.3 200.7 21
75.2 -49.1 202.6 21
77.3 -44.9 190.8 21
72 -45.9 197.6 21
77.2 -51.6 198.2 21
78.1 -42.5 194.2 21
82.3 -45.2 196.9 21
82.1 -45.5 199 21
81.9 -46.2 196 21
74.5 -45.4 201.5 21
78.6 -43 195.1 21
75.1 -41.2 194.9 21
77.6 -39.4 200.9 21
72.5 -49.7 195.1 21
79.4 -38.4 194.6 21
70.8 -49.6 194.5 21
82.4 -44.1 197.7 21
71.9 -46.4 201.9 21
76.9 -44.5 198.8 21
80 -41.3 197.9 21
76.1 -42.5 199.7 21
80.2 -41.6 198.7 21
74.7 -45.1 192.6 21
77.2 -36.5 197.5 21
73.2 -43.8 195.4 21
76.9 -46.7 201.7 21
76.8 -39.4 200.3 21
79.4 -42.4 182.6 21
70 -43.9 191.6 21
76.4 -42.2 199.1 21
77.4 -38.2 196.2 21
78.8 -42 168.5 21
76.1 -43.9 195.7 21
74.2 -45.9 201.7 21
78.7 -42 168.5 21
76 -43 197.3 21
72.7 -46 194.5 21
75.5 -47.6 191.9 21
83.3 -42.2 200.6 21
76.4 -46 191.5 21
75.8 -42.2 201.2 21
74.8 -51.2 194.4 21
76.7 -41.9 198.9 21
72.5 -49.6 196.5 21
72.7 -49.4 191.5 21
75.1 -40.6 194.9 21
81.8 -44.1 201.6 21
75.6 -45.8 193.4 21
77.3 -42.1 195.9 21
77.1 -41.7 202.5 21
72 -50.2 192.1 21
77.3 -40.3 200.7 21
77 -46.1 202.3 21
81.7 -45.1 196.1 21
73.4 -44.5 202.7 21
75.8 -44.7 190.9 21
75 -51.5 189.5 21
77.2 -48.4 201.9 21
78.7 -41.9 168.5 21
78.6 -42.3 191.1 21
79.8 -48.6 198 21
79.2 -43.8 198.5 21
73 -50.8 198.3 21
69.6 -44.4 198.3 21
71.8 -44.3 195.4 21
78.4 -40.5 195.1 21
74.2 -50.7 200.7 21
76.5 -47.3 191.4 21
79.6 -39.9 200.3 21
81 -44.4 187.2 21
73 -43.3 197.3 21
72.5 -47.4 197.4 21
75.1 -40.7 194.9 21
77.4 -46.7 201 21
75.7 -45.6 191.5 21
78.3 -42.6 190 21
81.8 -44.3 200 21
78.5 -45.7 194 21
77.6 -39.5 198.5 21
78.8 -42.3 193 21
79.1 -45 197.5 21
74.2 -51.7 195.2 21
76.8 -40.6 200.4 21
77.8 -38.4 195.1 21
79.4 -39.4 193.7 21
79.3 -47 201 21
71.7 -46.2 200.7 21
77.4 -49.7 197 21
73 -41.2 194.2 21
76.3 -50.8 199.9 21
76.6 -51.4 200.3 21
70.6 -48.6 197.3 21
79.7 -42.1 196.3 21
71 -44.7 191.9 21
82.6 -44.9 196.3 21
83.4 -44.3 199.1 21
78 -45.4 194.9 21
70.7 -47.6 196.3 21
73.2 -43.8 191.3 21
69.8 -46.6 196.6 21
76.1 -51.2 196.5 21
80.5 -40.7 203.6 21
77 -39.3 197.2 21
81 -45.8 197.7 21
77.3 -47.3 193.7 21
78.3 -45.3 194.2 21
80.7 -44.4 200.7 21
78.2 -45.6 200.2 21
70.7 -46.8 196.2 21
78 -42.7 168.6 21
71.1 -43.2 198.7 21
75.4 -46.2 190.7 21
71.2 -45.9 200.4 21
70 -47 200.7 21
77.2 -47.1 193.4 21
76.5 -49.1 194.9 21
78.5 -36.7 196 21
76.3 -45.4 201 21
71.1 -47.1 189.3 21
73.7 -43.3 193.5 21
72.1 -47.5 196.6 21
72.2 -42.9 198.2 21
80.9 -37.2 194.8 21
79 -46.8 203.3 21
72.3 -45.4 198.4 21
77.5 -38.7 196 21
78.2 -39.9 198.2 21
78.6 -42 201.4 21
70.5 -49.3 197.8 21
78.6 -46.8 202.8 21
77.5 -45.1 201.4 21
76.7 -38.3 198.5 21
78.8 -42.9 194 21
78.1 -42.7 168.6 21
70.3 -46 198.7 21
74.4 -50.7 195.2 21
76 -44.6 194.1 21
76.5 -42.7 202.9 21
79.8 -46 200.9 21
76.6 -49.1 193.8 21
73.4 -51.9 201.3 21
79.2 -38.9 200.7 21
75.3 -48.5 197.8 21
81.4 -45.8 197 21
73.7 -41.3 193.7 21
78.9 -43.9 198 21
71.5 -48.5 196.8 21
73.7 -49.8 192.9 21
77.3 -40.9 200.5 21
71.2 -47.4 200.4 21
71.7 -42.1 191.3 21
77 -47.2 194.6 21
80 -43.2 200.8 21
75.3 -47.5 193.1 21
74.8 -45.5 193.2 21
77.1 -47.9 191.5 21
76.8 -42.7 192.1 21
74 -52.6 189.7 21
72.1 -46.4 198.7 21
72 -48.5 197.9 21
75.1 -40.5 195 21
77.4 -39.2 195.9 21
72.9 -46.5 197.8 21
73.9 -42.1 195.7 21
76.8 -45.6 191.1 21
79 -46.4 201.7 21
75.8 -47.6 189.8 21
78.4 -41.1 200.9 21
79.9 -46.6 196.9 21
70.6 -49.4 197.7 21
77.3 -40.1 199 21
79.6 -39.2 194 21
78.5 -40.1 192.6 21
79.9 -45.1 200.6 21
76.7 -44.3 196 21
69.7 -44.1 194.7 21
80 -45.3 187.4 21
79.9 -45.8 196.6 21
74.4 -51 201 21
74.6 -51.6 194.7 21
75.9 -50.3 200.5 21
80.5 -45.7 195.2 21
73.2 -46.5 200.8 21
82.7 -43.7 198.2 21
76.3 -50 189.8 21
78.1 -42.7 168.7 21
74.3 -48.3 193.2 21
73 -49.8 198.4 21
71 -46.1 201.1 21
76.2 -38.2 197.2 21
78.4 -43.2 203.2 21
69.3 -46 195.8 21
80.7 -40.1 201.8 21
78.3 -39.7 198.3 21
75 -38 197.7 21
72.3 -44.5 191.8 21
78.2 -44.7 186.9 21
73.1 -50.8 191 21
72.1 -45.8 199.9 21
74.2 -51.3 201 21
78.6 -46.8 197.9 21
78 -45.2 195 21
79.2 -43.4 201.4 21
78.8 -40.4 201.2 21
76.9 -45.3 189.9 21
75.3 -47.8 198 21
83.2 -44.2 198.3 21
75.8 -44.3 190.1 21
74.5 -49.1 199.7 21
77.4 -36 195.2 21
76.5 -44.2 194.7 21
79.2 -41.4 195.8 21
78.1 -42.7 168.8 21
79.7 -46.4 197.6 21
78.7 -42.5 189.7 21
75 -47.3 191.9 21
80.4 -46.6 201.4 21
77.3 -36.3 197.7 21
81.9 -44.8 201.5 21
77.3 -45.7 192.1 21
77.9 -42.1 191.7 21
71.3 -48.3 189.6 21
72.1 -48.5 198.6 21
82 -42.7 187.1 21
77.9 -42.2 191.5 21
75.4 -40.8 200.5 21
82.8 -45.5 197.5 21
81.6 -44.5 201.7 21
78.5 -39.6 197.9 21
80 -37.5 194.8 21
78.3 -42.3 196.8 21
78.2 -42.8 168.6 21
76.4 -41.8 202.9 21
78.7 -35.6 195.3 21
78 -36 199.3 21
74 -46.1 200.9 21
78.4 -43 192.8 21
82.5 -46.2 201.2 21
71.5 -48.2 189.3 21
75 -37.9 197.7 21
77.6 -44 196.9 21
70.4 -47.3 199.2 21
69.3 -45.1 198 21
75.7 -40.3 194.5 21
80.2 -46.2 196.7 21
80.6 -43 198.8 21
79.6 -44 194.4 21
81.2 -44.4 196.3 21
74.3 -46.4 202.2 21
79.9 -43.7 200.7 21
78.2 -42.2 196.5 21
78.4 -45.5 194.1 21
76.1 -47.4 199.2 21
77.9 -38.9 200.3 21
78.3 -42.8 168.6 21
70.8 -44.3 198.1 21
78.2 -43.8 197.8 21
77.4 -51.5 198.5 21
72.1 -48.3 198.7 21
77.6 -52.3 199.8 21
75.1 -46.8 201 21
74 -48.9 201.2 21
74.9 -50.3 201.3 21
78.2 -42.7 168.5 21
81.8 -44.3 199.9 21
71.3 -48.4 196.9 21
73.1 -45.7 196.7 21
79 -42.2 181.8 21
74.6 -49.6 201 21
77.7 -41.4 198.7 21
78.7 -42.5 184.7 21
70.2 -47.6 190.1 21
78.2 -42.7 168.6 21
73.3 -50.5 198.3 21
73.8 -44.1 195.4 21
77.7 -37.1 195.4 21
80.1 -45.7 195.1 21
79 -40.8 199 21
81.3 -43 198.5 21
77.9 -42.1 197.3 21
75 -49.5 191.5 21
77.9 -45.7 199.6 21
73.9 -51.7 189.7 21
77.4 -39.4 198.9 21
78.2 -42.5 183.7 21
74.9 -50.4 191.1 21
74.8 -50 191.2 21
70.5 -48.8 200.1 21
77.7 -43.4 202.5 21
76.7 -48.2 190.4 21
70.8 -44.4 198 21
76.1 -37.3 194.7 21
75.1 -46.3 198.9 21
79.1 -44.7 186.8 21
75.9 -50.1 193.4 21
79.1 -41.9 194 21
77.1 -45.4 190.3 21
80.1 -41.6 195.8 21
78.6 -48.8 195.4 21
77 -41.2 194.5 21
76.4 -45.7 199.3 21
78 -36.7 196.2 21
77 -42.3 198 21
81.6 -45.8 200.3 21
71.6 -48.4 201.4 21
78.9 -41.7 194.8 21
77.1 -42.6 192.1 21
79.7 -43.9 203.2 21
74.8 -43.1 201.7 21
72.8 -46.8 197 21
76.6 -38.4 197.4 21
80 -44.9 197.5 21
77.4 -49.4 195.1 21
75.4 -44.8 191.1 21
77.6 -47.2 196.9 21
78.1 -52.2 190.8 21
79.2 -45.9 200.4 21
73.8 -47.1 203.3 21
76 -37.3 197.4 21
79.1 -41.6 187 21
77.6 -49.7 201.7 21
74.7 -49 192.7 21
74.2 -48 193.2 21
72.5 -50.2 199.3 21
80.2 -45.3 198 21
69.5 -48.2 200.4 21
79.9 -42 183.3 21
72.9 -46.1 201.4 21
77.7 -47 201 21
78.9 -41.8 194.2 21
82.1 -45.1 199 21
76 -50.7 190.3 21
80.8 -35.3 194.7 21
78.3 -42.6 182.9 21
76.2 -40.9 198.8 21
76.4 -40.4 199.5 21
76.1 -44.9 190 21
72 -46.4 189.7 21
77.8 -46.3 199 21
75.1 -51.1 201.3 21
77.3 -45.2 200.5 21
72.2 -48.4 200.9 21
75.8 -41.7 201.3 21
78.9 -46.5 203.2 21
76.2 -41.6 200.9 21
76.1 -36.1 195.1 21
78.4 -42.8 168.6 21
74 -44.8 190.2 21
78.7 -40.4 191.8 21
74.2 -46.6 192.6 21
82.3 -45.1 187.1 21
78.3 -42.3 189.2 21
75.7 -40.1 194.6 21
76.9 -49.8 194.9 21
78.1 -48.5 196.6 21
76.7 -43 200.6 21
74.8 -46.2 189.9 21
75.8 -42.5 200.9 21
74.2 -46.2 201.5 21
70.1 -43.1 198.8 21
76.4 -50.5 198.1 21
77.9 -38.7 200.4 21
77.2 -48.5 196.1 21
81.9 -44.9 202 21
71.6 -44.9 196.4 21
76.5 -46.2 200.2 21
74 -50.7 196.2 21
79.1 -40.8 196 21
75.5 -45.8 193.2 21
78.2 -42.8 168.7 21
78.3 -42.8 168.7 21
69.9 -48.7 196 21
74.4 -48.7 199.6 21
77.7 -49.9 195.2 21
78.1 -43.6 194.8 21
77.1 -37.9 194.9 21
76.7 -49.5 190 21
76.4 -36.6 195.3 21
79.7 -42.1 183.4 21
72.6 -49.8 199.4 21
81.1 -43.3 201.9 21
76.4 -39.2 200.9 21
78.4 -39.7 200.5 21
75.5 -40.6 194.9 21
76.3 -42.3 203.2 21
78.3 -42.6 184.6 21
75.8 -44.5 190.2 21
81 -46.6 195 21
78.2 -42.7 168.7 21
75.8 -46.9 194.9 21
80.5 -44.4 196.9 21
80 -42.3 197.3 21
74.8 -47.1 199.4 21
71.9 -44.8 196.8 21
79.3 -48.6 196.5 21
79.3 -45.5 201.1 21
73.9 -46.1 202.2 21
77.4 -37.6 196.3 21
72.5 -41.7 191.2 21
74.9 -49 198.9 21
77.5 -40.6 195.2 21
72.6 -46 203.1 21
70.3 -46.3 197.8 21
78.7 -46.1 202.1 21
79.3 -49.8 197.5 21
75.2 -44.8 191.9 21
77.2 -49.1 196.7 21
74.1 -51.2 199.8 21
76.7 -50.4 199.7 21
83.6 -43.4 201.3 21
74.6 -50.3 201.8 21
75.3 -46.5 197.9 21
78.3 -42.8 168.8 21
74.8 -49.4 193.7 21
70.2 -45.8 194.2 21
77.6 -50 194.2 21
77.7 -51.3 198 21
78.3 -42.7 185.7 21
78 -46.5 197.9 21
78.5 -43.1 192.4 21
78.3 -42.6 189.9 21
76.9 -42.8 198.4 21
81.4 -43.8 201 21
75.8 -48.7 196.4 21
77.9 -40.7 201.9 21
77.8 -44.9 196.9 21
72.9 -44.5 196.6 21
77.8 -36.7 199.7 21
75.3 -50.8 189.5 21
75 -43.2 201.8 21
73.4 -51.3 198.4 21
73.7 -48.1 201.6 21
80 -37.3 194.5 21
84.2 -46 198.7 21
79.5 -40.9 198.6 21
83.2 -44 201.5 21
78.2 -42.7 168.8 21
78.5 -43 194.4 21
78.6 -39.4 197.7 21
75.6 -51.6 189.9 21
76.7 -48.8 193.8 21
82.4 -45 197.2 21
77.5 -44.9 204.1 21
73.3 -47.4 191.6 21
78.2 -42.8 168.8 21
76.9 -49.6 196.3 21
69.7 -48.1 200 21
77.2 -45.8 192.4 21
76.4 -46.3 200.1 21
77.3 -40.9 199.5 21
79.4 -42.3 182.6 21
82.5 -45.4 197.5 21
78.7 -42.3 189.8 21
78.3 -42 183.8 21
75.7 -39.5 201.7 21
72.7 -49.9 192.2 21
70.2 -45.7 198.6 21
75.2 -52.3 200.1 21
80.5 -46.7 187.6 21
75.9 -50.8 191.5 21
80.4 -44.7 196.5 21
71.3 -45.1 200.7 21
75.9 -39.7 199.3 21
76 -47.6 195.9 21
74.7 -44.4 193.1 21
77.5 -39.8 201.6 21
77.5 -38.8 200.9 21
79.9 -42.4 197.3 21
77 -46.8 197.3 21
77.8 -44 185 21
80.3 -41.1 198.5 21
78.4 -42.8 168.7 21
79.8 -39.9 194.3 21
73.6 -42.9 195.6 21
73.3 -46.9 198.2 21
72.6 -46.4 198.1 21
79.7 -44.2 194.6 21
72.9 -43.4 194.9 21
71.9 -48.4 201.2 21
77.9 -47.3 197 21
70.1 -44.2 196.4 21
81 -44.3 198.5 21
73.5 -48.4 202.8 21
81 -45.6 203.1 21
74.7 -39.7 194.7 21
77.4 -49.9 201.8 21
71 -45.2 194.7 21
80.7 -42.2 200.9 21
72.9 -49.9 199 21
80.5 -42.5 198.4 21
78.6 -47 197.5 21
80.6 -41.5 202.1 21
70.9 -49.7 194.1 21
76.1 -51.2 193.1 21
76.3 -43.8 195.5 21
75.1 -47.3 202.4 21
72.6 -42.1 191.3 21
78.4 -42.8 168.8 21
82.5 -41.7 200.4 21
77.3 -47 194.1 21
72.1 -48.6 198.6 21
73.1 -47.9 189.1 21
83 -44.2 198 21
76.4 -41.3 202.4 21
78.3 -42.7 168.8 21
78 -42.6 168.6 21
77.2 -45.6 191.7 21
74.9 -46 193.3 21
77.5 -49.9 194.2 21
78.6 -43.5 195.9 21
77 -42.5 199.1 21
72.6 -46.1 189.8 21
74.7 -50.9 189.4 21
74.3 -45.6 196.1 21
76.7 -51.7 201.5 21
77 -50.4 200.4 21
72.2 -48.8 201 21
76.4 -48.6 202 21
78.4 -39.4 193.6 21
72.7 -46.3 202.2 21
76.3 -49.2 190 21
70.1 -45.2 197.7 21
76.4 -43.4 198.9 21
72.8 -49.9 191.2 21
78.5 -41.6 202.3 21
78.1 -37.8 195.5 21
83.2 -43.8 198.8 21
79.5 -49.4 197.5 21
76.7 -49.9 194.9 21
75.7 -40.7 200.7 21
76.2 -46.3 193.4 21
74.6 -47.4 200.2 21
76.3 -46.1 192.4 21
79.7 -43.4 203.4 21
77.6 -49.6 201.6 21
76.7 -46.8 197.7 21
77.3 -47.5 195.4 21
76.6 -42.9 198.2 21
79.1 -42 195.2 21
73.5 -46.4 195.6 21
79.1 -43.7 198.9 21
75.6 -49.3 191.7 21
82.1 -41 202.5 21
76.8 -37.6 197.7 21
73.1 -43.4 191.1 21
82.5 -46 195.8 21
74.4 -39 194.6 21
80.6 -43.9 196.9 21
76.8 -46.4 202.1 21
74.9 -46 199.7 21
78.5 -38.1 195.7 21
77.3 -44.1 185.8 21
76.3 -36.5 197.4 21
76.1 -45.6 196.1 21
77.4 -49.1 197.1 21
76.1 -48.5 197.4 21
78.7 -49.9 197.6 21
78 -48.8 198.3 21
74.6 -49.5 196 21
75.5 -50.7 189.5 21
77.4 -45 201.3 21
75.9 -48.6 196.3 21
76.1 -44.6 200.5 21
80.1 -41.8 198.8 21
74.3 -41 196 21
77.4 -39.5 200.6 21
81.2 -45.7 195.9 21
77 -49 190.1 21
76.1 -49.7 198.3 21
80.4 -45.3 187.2 21
78.4 -48.8 199.9 21
76.6 -37 198.1 21
71.8 -42.9 194.5 21
82.4 -43.1 187.1 21
76.9 -46.2 200.8 21
81.2 -42 199 21
73.1 -49.9 195 21
82.8 -45.3 198.9 21
76.6 -48.8 197.3 21
78.3 -42.3 183.1 21
77.9 -42.4 168.6 21
75.9 -38.7 197 21
70.8 -45.4 195.9 21
78 -42.5 168.6 21
75.6 -51.1 200.4 21
75 -49.5 194 21
79.6 -43.6 201 21
79 -40.7 197 21
78.8 -46.6 203.3 21
82.4 -40.9 201.1 21
72.5 -42 191.2 21
76.4 -38 194.4 21
80 -46.9 198.6 21
75.1 -46 190 21
70.9 -43.9 195.7 21
74.8 -51.2 197.9 21
77.5 -41.9 200.4 21
70.8 -46.7 192.8 21
80.3 -43.9 202.6 21
74.2 -40.1 194.7 21
77.2 -44.9 188.4 21
77.7 -44.9 188.9 21
73.1 -46.5 197 21
76.4 -39.8 200.8 21
71.4 -43.1 199.2 21
83.6 -43.3 202.1 21
77.2 -51.9 201.3 21
74.8 -44.5 200.7 21
79.8 -39.3 199.5 21
78.7 -45.3 187.1 21
74.3 -46.4 200 21
69.7 -44.8 198.7 21
80.1 -43 199.1 21
76.2 -51.2 190.3 21
78 -42.6 168.7 21
73.8 -46.9 199.9 21
76.7 -44.3 198.5 21
74.3 -52.2 189.6 21
78 -36.7 199 21
75 -46.1 194.3 21
75.9 -47 195.3 21
76.6 -53.1 200.3 21
77.2 -44.4 188.5 21
76.2 -46.3 193.2 21
77.4 -45.8 192.2 21
77.3 -48.2 197.6 21
77.2 -45.7 192.9 21
73.5 -43.5 196.3 21
76.5 -42.9 198.8 21
77.4 -44.3 188.2 21
79.8 -42.2 197.1 21
80.3 -42.7 199.6 21
72.6 -46.7 200.2 21
77.4 -41.8 200.2 21
76 -50.6 198.3 21
70.7 -48 197.3 21
76.6 -40.6 195.1 21
78.7 -42.6 188.6 21
79.5 -42.3 196.3 21
74.7 -48.7 199.1 21
80.6 -41.7 200.4 21
78 -42.6 168.8 21
77.7 -41.5 198.7 21
76.1 -44.9 190.3 21
75.9 -43 200.8 21
76 -47.8 196.7 21
72.6 -48.2 201.3 21
74.3 -51.4 199.3 21
73.3 -45.3 194.5 21
74.9 -47.9 199.2 21
71.8 -46.3 199 21
74.7 -48.2 197.7 21
79.1 -43.9 187 21
78 -42.7 168.7 21
78 -43.4 202.5 21
70.3 -44.8 197.9 21
75.5 -36.4 198.2 21
73.8 -46.3 195.3 21
78.6 -48.2 198.2 21
77.3 -49.6 193.9 21
75.6 -49.6 202.2 21
76.4 -39.2 197.7 21
77.3 -46.5 192.9 21
78.2 -40.8 201.9 21
76.3 -48.2 196.3 21
71 -50.1 195.8 21
78.6 -38.5 198.4 21
76.5 -48 197.2 21
75.2 -51.7 197.3 21
83.8 -44 198.2 21
75.9 -48.6 193.7 21
71.7 -44.1 191.6 21
76.5 -46.3 192.3 21
79.6 -42.1 183.1 21
74.1 -45.7 201 21
76.2 -41.8 192.9 21
79 -44.3 198.5 21
78 -48.9 196.8 21
72.8 -45.8 194.3 21
78 -44.8 201.5 21
75.1 -44.6 196.4 21
73.1 -45.3 196.4 21
77.6 -44 197.2 21
70.1 -46.1 200.5 21
78.1 -42.6 168.8 21
70.6 -48.2 194.9 21
78.4 -46.6 200.3 21
71.5 -43.6 196 21
78.6 -51.8 198.4 21
73 -45.7 201.7 21
72.2 -42.8 193.9 21
76.4 -37.8 194.5 21
74.7 -49.4 193.8 21
77.8 -43.5 198.7 21
69.7 -48 196.4 21
77.7 -39.4 198.4 21
73.3 -46.9 202.6 21
77.1 -44.7 187.9 21
75.8 -40 201.1 21
73.7 -51.4 195.7 21
80 -49.4 197.7 21
74.7 -44.9 192.7 21
80.8 -45.7 201.4 21
78 -42.5 168.7 21
76.2 -49.3 191.9 21
79.4 -39.5 193.7 21
79.7 -43.3 187 21
75.6 -48.3 197.4 21
76.7 -43 197 21
74 -51.2 194.8 21
83.7 -44 198.1 21
74.1 -42.9 192.2 21
77.7 -44.7 188.7 21
77.1 -41 199.5 21
76.4 -49.7 191.3 21
71.1 -45.1 199.8 21
73.7 -51.1 200.2 21
82.2 -44.8 187 21
77.9 -42.4 168.7 21
77.9 -42.5 168.7 21
80.4 -42.9 200.8 21
82.2 -44.1 202.8 21
70.5 -45.6 192.8 21
77.9 -45.4 200.2 21
73.8 -45.2 202 21
81.8 -45.4 198.9 21
78.2 -42.1 184.9 21
77.1 -49.2 200.5 21
78.5 -42.7 185.4 21
78.7 -42.3 184.3 21
80.1 -45.3 196.4 21
79.1 -47.2 200.8 21
77.3 -48.2 196 21
77.2 -38.8 201.2 21
78 -42.5 168.8 21
78 -41.5 200.2 21
76.2 -43.8 194.9 21
82.4 -44.8 201.7 21
78.4 -48.8 196.5 21
70.8 -47.7 199.4 21
78.7 -49.8 197.6 21
72.7 -50.2 190.9 21
80.1 -41 202 21
78.9 -43.6 193 21
70.9 -44.3 191.7 21
74.4 -47.9 193.3 21
72.9 -43.2 192.8 21
78.4 -44.4 203.3 21
75.5 -49.2 196 21
73.2 -43.9 195.4 21
71 -50.5 196.7 21
75.4 -42.9 201.1 21
80.8 -45.8 198.4 21
74.8 -45.1 202.1 21
78.6 -42.7 188.5 21
72 -47.2 194.7 21
83.1 -45.3 201 21
83.3 -45.9 201.1 21
76.9 -46.9 193.1 21
79.5 -46.1 202.3 21
78.2 -50.4 195.4 21
76.2 -44 196.2 21
72.9 -50.7 192.2 21
83.8 -46.2 198.5 21
78.1 -51.5 200.5 21
77.9 -42.5 168.8 21
74.2 -45.5 196.5 21
75.7 -45 200.1 21
74.5 -44.9 192.6 21
74.4 -48.7 192.9 21
74.6 -51.4 194.6 21
77.6 -47.5 195.6 21
74 -46.3 202 21
77.3 -40.3 201.3 21
78 -43.6 183.9 21
77.7 -53 200.9 21
77.9 -44.9 190.2 21
74.2 -45.9 200.2 21
76.3 -50 202.2 21
76 -40.5 202.7 21
79.1 -42.1 202.7 21
73.4 -48.9 197.8 21
80.7 -45.4 197.1 21
83.5 -45.6 198.1 21
71.7 -48.9 194.5 21
79.2 -43.1 195.2 21
80.1 -41.4 195.4 21
78.4 -36 195.2 21
77.6 -46.3 198.6 21
81.4 -46.8 195.4 21
71.6 -45.3 192.3 21
78.3 -42.3 195.4 21
78.7 -47.7 202.4 21
79.2 -42.1 197.7 21
76.6 -52.6 201 21
70.7 -45.8 197.7 21
76.1 -48.2 197.4 21
78.2 -35.7 195.2 21
78.1 -42.7 168.9 21
79.2 -45.8 200.3 21
80.3 -45.2 200.7 21
75.6 -45.8 192.9 21
79.1 -48.1 201 21
72 -49.4 196.7 21
78.8 -45.9 203.1 21
80.2 -46.8 194.9 21
74.9 -45.7 196 21
79.4 -48.3 196.4 21
74.4 -40.7 194.5 21
74.4 -45.9 202.2 21
73.4 -46.2 202.4 21
77.6 -51.3 198.2 21
83.5 -43.4 200.4 21
79.5 -39.6 199.3 21
76.5 -41.8 202.1 21
78.5 -46 191.6 21
76.1 -49.4 202.5 21
79.4 -36.1 199.8 21
71.1 -49.9 196.7 21
76.6 -51.7 199.3 21
73.8 -45.9 196.6 21
78.1 -42.7 169 21
76.7 -51.4 200.3 21
72.6 -47.4 191.7 21
79.9 -49.1 199.7 21
79.8 -48.7 198 21
73.8 -51.8 200.2 21
79.1 -43 196.8 21
72.4 -48.3 199.8 21
72.5 -49.9 196 21
73 -48.5 202.1 21
78.3 -42.2 189.9 21
75.9 -48.8 195.3 21
81.1 -45.9 195.1 21
77.4 -43.8 204.2 21
74.6 -40.6 195.5 21
71.6 -46.4 192.6 21
77.6 -38.3 200.5 21
79.3 -42.2 182 21
71.2 -47.1 197 21
78.2 -40.9 193.3 21
76.4 -43.4 201.4 21
76.9 -48.8 196.7 21
76.8 -50.6 198.2 21
79.4 -39.8 200.5 21
72.3 -50 194.8 21
75.2 -48.5 202.5 21
82.9 -43.9 198.6 21
72.7 -46.2 194.5 21
80.6 -46 201.1 21
74.7 -45.9 200 21
70.8 -46.6 200.8 21
76.6 -41.5 199.6 21
76.3 -38.4 196.9 21
71 -44.1 196.5 21
81.5 -43.5 187.1 21
78.2 -38.2 195.6 21
73.5 -47.6 202.3 21
77.1 -51.2 191.9 21
78.9 -43.7 201 21
69.5 -44.7 194.7 21
79.6 -46.7 197.4 21
75.8 -51.7 196 21
76.4 -36.9 196.5 21
78.9 -43 195.9 21
78.1 -42.4 183.1 21
77.4 -44.8 195.2 21
78.1 -44 198.5 21
74.7 -49.9 194.2 21
73.7 -41.9 195.6 21
81.1 -44.5 187.2 21
77.7 -44.7 189.5 21
79.7 -47.5 196.8 21
78.2 -42.8 168.9 21
76.9 -38.9 201.2 21
78.2 -42.7 168.9 21
73.5 -51.8 196.2 21
72.2 -49.9 199.9 21
78 -47 201.9 21
78.3 -45.1 202.8 21
71.2 -43.8 197.5 21
79.2 -46.4 194.2 21
72.4 -46.7 198.1 21
75.8 -52.5 200.4 21
76.1 -45.6 192.1 21
75 -39.8 193.6 21
73 -45.1 194.4 21
73.2 -51.2 198.7 21
75.4 -47.1 197.9 21
81.5 -42.2 201.8 21
78.1 -44.8 195.2 21
72.4 -50.7 199.2 21
77.6 -44.3 185.4 21
71.9 -48 196.6 21
73.8 -49.8 202.2 21
80.6 -47.9 196.8 21
72.6 -51 198.3 21
82.3 -45.2 197.2 21
78.1 -42.4 197 21
80.1 -42.7 197.9 21
79.8 -41.9 196.7 21
74.6 -49.9 189.2 21
71.3 -49.1 198.5 21
80.3 -42 200.1 21
70.5 -45.5 197.9 21
77.9 -44.8 189.6 21
77.3 -46.7 201.8 21
81.3 -44.1 202.8 21
82.6 -41.4 200.6 21
78.6 -46 202.6 21
74.8 -49.4 196 21
70.9 -45.3 201.4 21
76.5 -35.7 195.2 21
74.6 -50.6 191 21
77.8 -46.3 201.5 21
77.4 -41.8 195 21
77 -38.7 195.7 21
78.5 -45.7 193.9 21
76.3 -50.7 194.6 21
71.5 -47.6 198.7 21
71.9 -48.1 199.6 21
82.2 -43.2 197.7 21
75 -48.8 202.9 21
77.2 -45.9 202.9 21
76.1 -52.3 200.5 21
83.1 -42.7 200.2 21
76.7 -48.7 194.8 21
78.2 -36.1 195.2 21
71.8 -48.9 200.5 21
79.3 -43.5 202.4 21
80.7 -44.8 203.1 21
71.8 -48.9 200.4 21
76.6 -51.7 195.7 21
77.3 -47 193.4 21
71.1 -50.1 196.7 21
79.6 -43.3 197 21
73.6 -51.9 201.5 21
77.8 -43.8 185.7 21
77 -50.8 197.1 21
76.1 -46.8 194.3 21
74.5 -50.9 201 21
72.1 -44.7 196.6 21
74.8 -50.3 199.4 21
77.8 -43.7 185.1 21
78.3 -42.8 168.9 21
73.1 -43.3 196.9 21
78.4 -42.8 168.9 21
69.8 -47 196.3 21
71.8 -45.3 192.2 21
71.3 -49 196.6 21
73.8 -51.5 191.4 21
72.1 -50.9 198 21
78.9 -37.3 199.9 21
73.5 -49.2 199.3 21
76.5 -45.9 191.4 21
78.1 -44.5 202.2 21
78.9 -42.2 193.3 21
74.2 -47.9 200.5 21
77.1 -51 192 21
77.9 -51.9 191.2 21
75.5 -45.9 193.2 21
72 -46.2 197.3 21
76 -44.7 192.8 21
76.3 -50.6 194.7 21
81.8 -44.2 198.4 21
79.1 -45.1 196 21
82 -44 198.9 21
77.3 -45.8 192.3 21
79.1 -39.6 193.4 21
74.9 -50.3 194.1 21
74.2 -47.4 196 21
71.6 -43.8 191.6 21
78.7 -44 197.7 21
78.2 -42.7 169 21
77.5 -45.9 190.7 21
76.1 -38.5 194.5 21
72.3 -43.6 197.1 21
74.4 -44.7 201.6 21
78.6 -36.3 195.2 21
70.4 -49.4 197.8 21
70.5 -49.4 194.6 21
72.4 -43.7 195.2 21
78.3 -42.7 168.9 21
76.6 -42.6 201.4 21
77.3 -44.7 199 21
78.1 -42.3 187.4 21
78.2 -47.7 195.6 21
81.1 -42.6 202.3 21
77.4 -41.4 195.2 21
77.4 -50.9 192.1 21
73.8 -47.3 202.4 21
75.4 -49 196.2 21
77.3 -44.3 186.7 21
74.3 -40 194.8 21
73.5 -49 195.7 21
70.5 -47.6 200.4 21
82 -45.2 196.4 21
75.4 -39.2 196.3 21
78.8 -42.5 202.3 21
81.2 -39.4 194.8 21
78.2 -42.8 169 21
78.3 -42.8 169 21
80 -48.5 196.6 21
75 -45 192.1 21
78 -37.6 200.1 21
81.1 -46.5 201 21
81.2 -42.4 199.1 21
73.6 -49.3 196.5 21
77.3 -49.4 202.1 21
76.4 -41.4 202.6 21
78.2 -42.6 185.4 21
76.7 -49.2 190.2 21
77.9 -39 195.1 21
75.9 -52 191.3 21
73.9 -51.1 195.8 21
73.7 -47.7 193.2 21
75 -50.5 201.6 21
74.6 -50.1 191.3 21
72.3 -52.1 192.7 21
76.9 -44.5 188.9 21
79.9 -41.5 199.3 21
82.5 -45.6 196 21
74.2 -51.3 189.3 21
76.2 -45.6 200.1 21
72.9 -50.4 201.7 21
74.4 -48.9 192.7 21
78.4 -42.7 192.5 21
80.9 -46.1 201.7 21
73.1 -46.8 197.3 21
78.4 -41.7 189.7 21
77.1 -52.9 201.1 21
77.2 -50.4 198.5 21
77.1 -39.3 199.7 21
72.9 -44.9 195.5 21
77.2 -41.6 198.6 21
75.3 -42.7 192.4 21
80.6 -41.5 201.4 21
78.3 -39.2 200.4 21
81.3 -43.8 198.2 21
71.5 -43.7 191.8 21
78.3 -42.7 169 21
71.1 -44.9 196.9 21
70.7 -48 197.5 21
76 -46 199.8 21
77.3 -42.8 199.2 21
79.8 -44.1 201.1 21
80.4 -46.7 195 21
79.4 -43.6 187 21
77.3 -46.3 192.6 21
77.1 -45.3 191.2 21
76 -39.6 201.1 21
81.1 -45.2 201.6 21
80.7 -39.3 194.6 21
75.5 -50.1 191.5 21
79.3 -44.5 201.7 21
71.4 -49.4 198.6 21
77.6 -43.1 201.8 21
76.6 -44.1 196.9 21
79.1 -48.1 198.7 21
78.9 -47.7 197.9 21
75 -48.9 188.9 21
72.5 -42.7 194.1 21
69.9 -45.5 198 21
70.2 -48.4 199.9 21
80 -42.9 199.4 21
72 -49 197 21
82.5 -41.2 200.8 21
72.9 -48.8 202.4 21
77.6 -44.3 185.5 21
78.2 -39 197.9 21
82.2 -40.3 200.7 21
79 -47.1 203.1 21
78.9 -42.2 195.3 21
76.5 -51.8 199.3 21
79.2 -42.7 202.6 21
82.2 -45.7 196 21
80.8 -44.9 201.1 21
74.8 -47 201.1 21
81.8 -45 197.3 21
75.2 -37.4 197.9 21
77.8 -52.4 200.7 21
73.8 -49.3 196.5 21
81.8 -42.3 201.2 21
79.3 -38.5 196.7 21
80.1 -41.7 199.1 21
70.9 -47.5 199.2 21
77.1 -47.2 190.7 21
78.7 -42.5 190.4 21
76 -44.5 200.2 21
74.7 -49.2 189 21
78.4 -42 189.1 21
79.9 -38.2 199.5 21
70.5 -45.8 198 21
71.5 -50.2 200.4 21
79.8 -41.4 201.8 21
78.4 -42.8 169 21
82.8 -43.1 199.8 21
76.4 -39.3 195.2 21
81.3 -44.3 200.7 21
76.2 -42.5 199.7 21
77.1 -42.6 198.2 21
77.9 -44.6 189.3 21
74.3 -50.4 191.9 21
78.3 -37.7 199.6 21
77.9 -44.8 193.8 21
78.4 -45.2 201 21
79.8 -41 198.7 21
78.5 -44.2 195.6 21
70.4 -47.3 200.1 21
77.7 -43.4 183.5 21
72.9 -51.2 198.3 21
78 -38.9 198 21
70.5 -45.5 192.6 21
74.9 -46.2 201.4 21
78 -45.2 202.5 21
78.4 -42.7 169 21
77.8 -45.8 200.2 21
81.5 -40 202.2 21
76.5 -50 193.7 21
78.4 -42.4 202.8 21
76.2 -36.7 197.9 21
80.1 -41.7 198.8 21
76.7 -44.3 198.8 21
70.6 -47.4 199.5 21
78 -42.6 168.9 21
78.9 -43.4 200.6 21
77 -42.7 199.2 21
76.5 -46 199.7 21
74.3 -51.5 201.3 21
77.9 -45.6 193.5 21
74.8 -46 199.8 21
76 -47.5 199.8 21
72.3 -44.7 196.4 21
77.8 -46.4 201.4 21
81.3 -46.6 187.8 21
78.6 -42.2 182.8 21
77.6 -40.7 201.2 21
74.5 -51.8 200.8 21
70.9 -44.1 198.6 21
82.5 -44.3 198.6 21
82.5 -43.9 198.6 21
77.6 -51.5 198.1 21
72.5 -49.3 200.6 21
76.4 -50.4 195.2 21
82.2 -45.1 196.1 21
78.9 -45.7 200.5 21
78.5 -45.6 197.7 21
77.5 -46.1 203.4 21
81.2 -39.4 194.9 21
81.1 -36.2 194 21
80.2 -48.1 196.7 21
79.2 -45.6 200.6 21
74 -49.4 191.9 21
74.8 -41.6 201.1 21
73.3 -43 191.4 21
72.3 -50.5 199.9 21
77.4 -49.1 195.9 21
77.9 -44.8 189.7 21
81.5 -45.6 195.9 21
70.1 -44 198 21
73.2 -40.8 196.6 21
80.2 -44.7 197.8 21
77.1 -41 199.3 21
80.5 -48.7 196.7 21
78.4 -45 202.7 21
80.1 -44 187 21
83.7 -44 199.1 21
78.5 -46.6 202.5 21
76 -48.5 198 21
78.4 -43.8 202.8 21
71.8 -47.7 196.1 21
78.6 -40.1 192.1 21
82 -47.9 188 21
78.7 -41.8 187.9 21
79.8 -40.2 200.5 21
73.3 -49.6 198.3 21
78.5 -49.4 199.5 21
76.7 -36.7 197.9 21
78 -35.8 195.2 21
77.4 -44 186.9 21
72.6 -49.1 196.3 21
81.7 -45 197.2 21
79.2 -44 200.2 21
75.7 -45.8 196.2 21
74.7 -47 201.2 21
78.5 -46.1 198.8 21
78.1 -42.6 168.9 21
77.3 -48.1 201.1 21
77.1 -51.5 198.1 21
77.8 -45.2 190.9 21
83 -45.3 201 21
77 -50.3 192.2 21
73.9 -48.3 196 21
72.8 -42.2 194.2 21
70.6 -45.9 198.4 21
76.2 -49.9 199.5 21
69.8 -48 199.9 21
70.6 -48.2 199.3 21
74.8 -45.8 194.6 21
71.9 -41.7 191.3 21
82.1 -41.4 200.6 21
69.8 -46 195.6 21
80.2 -47.4 187.6 21
73.3 -49.3 199.3 21
77 -46.9 194.6 21
73.4 -49.9 199.3 21
77.5 -46.2 202.8 21
74.1 -47.9 193.3 21
75.9 -51.4 200 21
77.7 -48.8 200.2 21
72.7 -43.1 193.5 21
75.8 -52.9 200.6 21
70.6 -46.7 197.6 21
72.5 -49.1 200 21
79.8 -41.1 198.2 21
78.3 -43.2 187.4 21
78.6 -44 197.6 21
76.1 -49.7 198.2 21
72.4 -45.6 201.3 21
76.4 -48.8 201.2 21
76.3 -48.2 193.4 21
78.8 -46.8 201.5 21
70.1 -47.3 196 21
72.6 -49.9 191.1 21
77.4 -49.8 197.2 21
75.1 -45.6 199.9 21
75.1 -47.5 190.9 21
70.8 -47.6 189.8 21
72.4 -49.9 198.2 21
77.4 -40.5 199.4 21
78.3 -39.6 200.7 21
71.6 -47.4 194.7 21
75.2 -46.1 193.8 21
76.1 -40.9 201.3 21
74.3 -46.3 202.2 21
77.6 -44.8 195.3 21
77.3 -45.3 189.1 21
79.2 -42 194.7 21
71.3 -49.9 197.7 21
77.9 -42.4 168.8 21
79.3 -39 200.6 21
78.3 -42.6 187.9 21
81.1 -44.6 195.6 21
70.9 -48.7 200.1 21
72.5 -48.2 199.9 21
74.8 -42.6 201.9 21
76.4 -44.7 189.8 21
72.3 -48.1 189.1 21
78.3 -42.1 191.1 21
77.7 -44 197 21
77.6 -44.2 184.7 21
81.1 -46.1 196 21
71 -47.7 200.8 21
70.9 -46.1 200.4 21
78.6 -46.6 202 21
75.4 -48.9 192.2 21
78.1 -42 183.7 21
71.7 -47.1 201.9 21
76.7 -36.9 196.7 21
78 -42.5 168.9 21
78.5 -41.9 188.1 21
71.1 -42.5 198.2 21
79.2 -42.7 202.5 21
79.2 -45.2 200.5 21
81.4 -44.6 195.8 21
77.5 -35.5 198 21
80.9 -39.4 194.6 21
70.2 -48.6 197.1 21
71 -46.6 197.9 21
70.5 -46.6 196.1 21
78.8 -43.3 187.2 21
81.5 -40.3 202 21
78.7 -38.9 200.2 21
83.6 -44.1 199 21
78.4 -40.8 197.7 21
76.6 -38.4 196.7 21
75.6 -47.2 197.9 21
78.3 -48.9 196.7 21
73.8 -47.7 193.5 21
79.2 -36.5 199.5 21
77.4 -47.4 196 21
70.1 -50.1 194 21
80.7 -43.8 187.2 21
78.4 -42.1 187.2 21
79.4 -45.5 187.1 21
78.7 -42.2 188.6 21
79.9 -49.5 197.3 21
75.3 -44.8 191.3 21
74.2 -45 193.4 21
75 -46.7 197.4 21
83.9 -43.6 201.2 21
79.3 -37.1 200.2 21
80.5 -40.7 203 21
75.7 -37.4 197.5 21
73.7 -50.3 192.6 21
74.7 -46 195 21
82.5 -42.2 201 21
75.5 -48.6 197.8 21
73.6 -50.6 201.3 21
76 -49.1 193.7 21
78 -42.4 168.9 21
76.4 -39.1 198.2 21
74.7 -49.6 197.2 21
77.9 -47.9 202.7 21
75.2 -49.2 199.3 21
83 -44.1 198 21
78.6 -48 198 21
82 -43.9 199 21
78 -48 195.8 21
71.6 -47.7 199.3 21
78 -50.5 199.3 21
77 -47.5 200.9 21
77.3 -45.2 190.8 21
77.8 -43.9 185.3 21
78 -42.6 169 21
77.9 -42.6 169 21
76.7 -39.5 200.6 21
76.3 -49.6 195 21
74.1 -44.1 194.1 21
78.6 -42.2 190.2 21
78.6 -36.5 196 21
79.7 -46.1 198.3 21
74.7 -49.4 189 21
76.8 -50.8 201 21
73.7 -47.1 203.3 21
70.4 -49.9 194.1 21
70.7 -46.2 200.9 21
82.9 -46 195.9 21
77.8 -44.1 185 21
82.1 -41.8 200 21
72.5 -42.6 191.2 21
81.2 -46.2 194.3 21
78.1 -42.6 169 21
77.3 -40.1 198.9 21
75.8 -51.1 193 21
82.1 -46.5 195.7 21
79.5 -40.9 197.6 21
72.7 -50.6 192.6 21
73.9 -43.3 195.4 21
77.9 -52.5 201.1 21
73.7 -45.5 202.2 21
73.9 -49.6 200.4 21
73.1 -50 198.5 21
73.9 -51.4 201.4 21
70.9 -48.2 196.5 21
73.9 -48.5 193 21
72.6 -47.3 189.5 21
75.7 -37.3 195.3 21
72.8 -51.8 196.5 21
72.3 -49.8 200.1 21
78.2 -42 184 21
75.1 -37.3 198.1 21
71.9 -47.4 201 21
73.7 -51.2 200.1 21
76 -44.6 190.2 21
72.8 -50 196.3 21
80.9 -44.5 200.5 21
82.4 -44.9 196.1 21
77.4 -44.5 196.7 21
79.8 -46.7 196.6 21
74.2 -39.8 193.5 21
78 -45.6 199.9 21
71.7 -49.1 200.8 21
77.4 -41.9 196 21
75.4 -43 196.2 21
77.7 -38.3 198.3 21
79.7 -41.9 198.2 21
77.9 -45.3 202.7 21
80.3 -43.8 193.4 21
75.1 -47.7 200 21
80.2 -45.7 187.2 21
77.6 -38.6 195.4 21
79.6 -42.8 186.8 21
76.7 -43 191.9 21
72 -45.5 198.5 21
77.3 -49.5 196.6 21
70.2 -43 198.8 21
72.8 -42.1 192.1 21
80.2 -42 197.9 21
69.3 -44.3 194.8 21
78.3 -42.1 194.5 21
72.8 -45.9 198.4 21
80.3 -40.2 194.8 21
77.8 -41.6 195.9 21
80.2 -46.8 196.2 21
82.9 -46.4 200.8 21
75.1 -48.8 200.2 21
81.1 -43.1 202.6 21
77.4 -47.7 200.1 21
77.6 -39.9 195.1 21
71.1 -48.3 197.2 21
75.8 -38.9 196.1 21
79.9 -45.7 195 21
69.9 -44.3 196.3 21
78.4 -42.6 187.6 21
78.8 -44 201.3 21
71.2 -43 198.4 21
78.6 -42.5 185.9 21
76.3 -46.3 192.9 21
78.8 -47.6 200.3 21
77.5 -36.2 195.2 21
71.8 -46.3 199.3 21
80.3 -42.4 200.4 21
74.6 -42.6 191.5 21
77.2 -43.8 197.3 21
78.5 -46.9 199.8 21
77.9 -39.4 201.1 21
83.2 -42.3 200.6 21
83.9 -43.9 198 21
78.9 -44.2 203.2 21
82.2 -41.4 201 21
71.5 -47.7 197.4 21
75.2 -44.6 192.2 21
75.1 -41 194.9 21
72.7 -50.9 196.1 21
81.3 -42.6 200.4 21
77.3 -44.1 186.3 21
73.9 -43.9 194.8 21
71.1 -43 198.9 21
78.1 -37.3 199.9 21
79.1 -41.4 186.9 21
77.4 -43.7 184.8 21
76.3 -51.3 195.3 21
76 -50.1 194.3 21
73 -51.5 196.4 21
73.1 -46.3 201 21
75.4 -45.8 190.8 21
72.9 -46.3 196.8 21
74.5 -51.2 197.7 21
75 -39.7 194.6 21
71 -45.3 195.2 21
78 -42.5 169 21
82.6 -41.3 202.7 21
80.4 -44.8 203.1 21
71.4 -42.9 198.8 21
72.6 -46.6 197.9 21
74.5 -51.6 201 21
74.2 -44.9 201 21
76.8 -44.8 191.4 21
77.8 -44.2 185.8 21
76.1 -46.9 194.8 21
75.8 -52 195.8 21
82.3 -44.1 202 21
81 -47.1 195.3 21
74.2 -51 191.7 21
70.8 -47.3 195.5 21
72.8 -47 196.4 21
71.2 -46.7 196.6 21
77.1 -39.5 197.8 21
69.8 -45.2 198.4 21
79.7 -46.6 198.3 21
76.3 -52.5 197.3 21
75.4 -50.3 201.4 21
77.8 -50.1 195.3 21
78 -41.4 195 21
81 -42.2 199.6 21
78.6 -43.6 190.9 21
76.1 -46.2 201 21
